735502.76 3752067.86 281.5011 209
735502.39 3752067.47 281.6511 200
735502.36 3752067.33 281.7941 184
735502.56 3752067.49 281.8051 237
735503.47 3752068.25 281.1701 88
735502.35 3752068.03 281.0411 111
735502.43 3752067.81 281.1971 237
735502.38 3752067.28 281.9371 193
735502.79 3752068.02 281.5051 105
735502.4 3752067.66 281.3531 241
735503.23 3752068.27 282.0711 98
735502.53 3752067.55 281.6551 239
735502.7 3752067.8 281.5031 243
735502.43 3752068.06 281.1921 120
735502.5 3752067.62 281.5041 236
735502.45 3752067.33 281.9411 211
735502.56 3752067.91 281.1851 95
735502.34 3752067.42 282.0921 103
735502.36 3752067.54 281.5041 227
735502.56 3752067.69 281.5021 240
735502.6 3752067.83 281.3441 231
735502.36 3752067.75 281.2011 247
735502.49 3752067.43 281.8001 239
735502.64 3752067.75 281.8191 86
735502.57 3752067.72 281.8171 103
735502.46 3752067.79 281.9771 99
735502.6 3752067.6 281.6551 240
735502.47 3752067.71 281.3511 240
735502.47 3752067.53 281.9561 105
735502.61 3752068.03 281.3461 109
735502.67 3752067.89 281.6671 126
735502.47 3752067.5 281.6521 239
735502.43 3752067.59 281.5041 240
735502.34 3752067.16 282.0671 213
735502.42 3752067.39 281.7961 190
735502.64 3752067.73 281.5011 240
735502.73 3752067.93 281.3391 92
735502.79 3752067.8 281.6621 83
735502.66 3752067.67 281.6571 237
735502.51 3752067.82 281.0321 87
735502.53 3752067.77 281.3471 237
735502.1 3752068.2 280.4251 101
735501.47 3752067.38 280.7521 95
735501.88 3752067.87 280.6451 95
735501.82 3752067.79 280.6591 96
735501.61 3752067.65 280.4261 86
735501.52 3752067.47 280.7361 79
735502.17 3752068.25 280.4091 103
735501.3 3752067.61 280.4981 109
735501.82 3752067.57 280.8191 198
735502.01 3752067.75 280.7831 192
735502.01 3752067.99 280.7661 118
735502.2 3752068.15 280.5711 103
735501.53 3752067.64 280.5791 92
735501.45 3752067.64 280.5961 103
735502.16 3752068.05 280.7431 103
735501.74 3752067.55 280.6941 105
735501.88 3752067.63 280.8071 197
735501.95 3752067.67 280.7971 223
735501.7 3752067.66 280.8291 109
735501.4 3752067.33 280.6411 77
735501.49 3752067.3 280.6271 101
735502.12 3752068.15 280.5841 104
735501.62 3752067.4 280.7231 98
735501.66 3752067.52 280.7061 96
735501.56 3752067.56 280.4481 103
735501.64 3752067.55 280.5681 78
735501.75 3752067.76 280.6721 109
735501.48 3752067.55 280.4681 100
735502.26 3752068.02 280.7331 91
735501.44 3752067.45 280.4901 100
735502.11 3752067.73 280.9211 215
735501.63 3752067.04 281.8921 30
735502.08 3752067.16 281.7781 169
735502.1 3752067.1 281.9121 177
735501.8 3752066.98 281.7651 192
735502.25 3752067.17 281.9221 181
735502.21 3752067.48 281.3611 146
735502.22 3752067.04 282.1881 209
735501.99 3752067.16 281.6421 137
735501.39 3752066.98 281.4031 87
735501.92 3752067.12 281.6421 162
735501.49 3752067.35 281.0111 58
735502.33 3752067.61 281.3561 218
735501.92 3752067.17 282.0451 100
735501.57 3752067.33 281.0021 78
735502.13 3752067.04 282.0441 179
735502.32 3752067.2 281.9271 184
735501.75 3752067.31 281.1141 237
735502.23 3752067.41 281.5051 167
735501.96 3752067.03 281.9031 162
735501.61 3752067.24 281.1321 202
735501.78 3752067.06 281.8981 85
735502 3752067.35 281.3701 159
735501.37 3752067.03 281.2851 27
735502.23 3752067.26 282.2121 107
735501.88 3752067 281.8971 105
735502.26 3752067.56 281.3601 163
735501.62 3752067.02 281.5151 183
735501.41 3752067.15 281.5261 105
735501.46 3752067.01 281.4001 175
735501.82 3752067.35 281.1081 171
735501.95 3752067.24 281.5091 177
735501.73 3752066.95 281.7641 65
735501.84 3752067.31 281.2441 201
735501.54 3752067.03 281.6421 103
735502.3 3752067.48 281.5061 155
735502.3 3752067.68 281.2061 234
735501.7 3752067.22 281.2531 230
735501.64 3752067.18 281.2611 211
735502.04 3752067.45 281.2281 166
735501.47 3752067.17 281.1481 52
735502.17 3752067.78 280.9131 200
735501.5 3752067.1 281.2721 173
735501.46 3752067.42 280.8801 82
735502.05 3752067.01 282.0371 190
735502.07 3752067.37 281.3681 163
735502.17 3752067.14 281.9191 180
735502.27 3752067.11 282.0591 207
735502.01 3752067.11 281.7751 168
735501.84 3752067.1 281.6401 138
735501.88 3752067.42 281.0991 173
735502.2 3752067.09 282.0541 197
735502.33 3752067.41 281.6511 181
735501.7 3752067.06 281.8971 75
735501.62 3752067.41 280.8561 86
735502.19 3752067.98 280.8991 105
735502.14 3752067.44 281.3641 162
735502.27 3752067.76 281.0541 226
735501.82 3752067.14 281.5101 210
735502.11 3752067.51 281.2211 159
735501.77 3752067.05 281.6391 215
735502.33 3752067.83 281.0471 154
735502.1 3752067.32 281.5081 168
735502.14 3752067.63 281.0691 166
735501.73 3752067.14 281.3831 206
735501.7 3752067.41 280.8441 86
735501.77 3752067.26 281.2471 232
735501.87 3752067.02 281.7671 196
735502.23 3752067.64 281.2131 166
735501.56 3752067.16 281.2661 201
735501.54 3752067.01 281.5181 184
735501.7 3752067.02 281.6401 173
735501.87 3752067.24 281.3771 188
735501.44 3752067.05 281.2801 162
735501.52 3752067.05 281.3951 192
735501.95 3752067.47 281.0921 180
735502.17 3752067.56 281.2161 167
735501.98 3752067.61 280.9421 186
735501.89 3752067.19 281.5101 186
735502.15 3752067.2 281.7831 169
735501.9 3752067.36 281.2371 175
735502.19 3752067.32 281.6461 168
735501.66 3752067.12 281.3881 189
735502.02 3752067.29 281.5081 169
735501.97 3752067.42 281.2321 164
735501.79 3752067.21 281.3791 223
735501.68 3752067.28 281.1221 237
735501.85 3752067.5 280.9601 192
735502.29 3752067.29 281.7891 177
735502.01 3752067.53 281.0861 159
735501.95 3752067.05 281.7711 175
735502.2 3752067.71 281.0631 180
735502.22 3752067.25 281.7861 179
735502.05 3752067.23 281.6441 138
735502.26 3752067.35 281.6471 171
735501.66 3752066.91 281.7601 79
735501.68 3752067.07 281.5151 186
735501.66 3752067.33 280.9901 197
735501.59 3752067.08 281.3911 184
735502.03 3752067.06 281.9071 179
735502.08 3752067.18 282.1931 113
735502.12 3752067.26 281.6461 160
735501.63 3752067.01 281.6401 162
735502.17 3752067.36 281.5061 173
735501.58 3752067.29 280.8731 88
735501.55 3752067.19 281.1401 184
735501.78 3752067.44 280.9711 232
735501.72 3752067.38 280.9791 228
735501.75 3752067.1 281.5121 194
735502.04 3752067.66 280.9311 193
735502.08 3752067.58 281.0771 155
735502.29 3752067.95 280.8911 90
735501.93 3752067.29 281.3731 176
735501.91 3752067.55 280.9501 183
